x,y,z,i
0.43605074,0.0,0.14929359,128.0
0.4552017,0.0,0.153856,128.0
0.42981076,0.0,0.1433957,128.0
0.4601004,0.0,0.15149578,128.0
0.497783,0.0,0.16173948,128.0
0.46498984,0.0,0.14906818,128.0
0.48788247,0.0,0.15429701,128.0
0.4847616,0.0,0.15121846,128.0
0.48535168,0.0,0.14931366,128.0
0.47847018,0.0,0.14514232,128.0
0.47903645,0.0,0.14326231,128.0
0.47959533,0.0,0.14138004,128.0
0.55889094,0.0,0.16237281,128.0
0.63470435,0.0,0.18169883,128.0
0.6015345,0.0,0.16965032,128.0
0.6134692,0.0,0.17041841,128.0
0.666895,0.0,0.18244186,128.0
0.6676063,0.0,0.1798215,128.0
0.6796166,0.0,0.18019702,128.0
0.6576771,0.0,0.17161857,128.0
0.6885658,0.0,0.1767937,128.0
0.70069546,0.0,0.17697796,128.0
0.68236315,0.0,0.16949983,128.0
0.7020638,0.0,0.17146923,128.0
0.7027317,0.0,0.168711,128.0
0.657742,0.0,0.15518068,128.0
0.6697442,0.0,0.1552384,128.0
0.67034864,0.0,0.15260705,128.0
0.6937793,0.0,0.15507798,128.0
0.6791453,0.0,0.14900918,128.0
0.66066206,0.0,0.14223686,128.0
0.7071033,0.0,0.14933233,128.0
0.73823607,0.0,0.15288128,128.0
0.69669026,0.0,0.14142671,128.0
0.72793883,0.0,0.14479606,128.0
0.72850186,0.0,0.14193635,128.0
0.73671544,0.0,0.14053601,128.0
0.73726165,0.0,0.13764177,128.0
0.7377965,0.0,0.13474558,128.0
0.7344807,0.0,0.13116163,128.0
0.738832,0.0,0.12894684,128.0
0.7393327,0.0,0.12604447,128.0
0.7359749,0.0,0.122499734,128.0
0.73645025,0.0,0.119608715,128.0
0.7369143,0.0,0.116715774,128.0
0.7180951,0.0,0.11084621,128.0
0.7378082,0.0,0.11092451,128.0
0.73823816,0.0,0.1080263,128.0
0.7386567,0.0,0.105126426,128.0
0.7390638,0.0,0.102224916,128.0
0.7394596,0.0,0.09932184,128.0
0.73984385,0.0,0.09641723,128.0
0.7402168,0.0,0.09351113,128.0
0.7212226,0.0,0.08823559,128.0
0.7409284,0.0,0.08769466,128.0
0.74514174,0.0,0.08522755,128.0
0.7454707,0.0,0.08230083,128.0
0.71864146,0.0,0.07648349,128.0
0.7460941,0.0,0.076443344,128.0
0.74250734,0.0,0.073130585,128.0
0.74667144,0.0,0.07058123,128.0
0.7469429,0.0,0.067648605,128.0
0.74720275,0.0,0.06471477,128.0
0.7474511,0.0,0.06178002,128.0
0.7243601,0.0,0.05700837,128.0
0.74791336,0.0,0.055907704,128.0
0.7481271,0.0,0.05297032,128.0
0.7249815,0.0,0.04847094,128.0
0.7251662,0.0,0.045623574,128.0
0.7486992,0.0,0.044153087,128.0
0.7527609,0.0,0.041427013,128.0
0.7295483,0.0,0.037276544,128.0
0.7491674,0.0,0.03532982,128.0
0.7259222,0.0,0.031377085,128.0
0.7299368,0.0,0.028679274,128.0
0.7300438,0.0,0.025812691,128.0
0.75352794,0.0,0.023680637,128.0
0.7341225,0.0,0.020185307,128.0
0.7536907,0.0,0.017761681,128.0
0.7303592,0.0,0.014342385,128.0
0.75380695,0.0,0.011841808,128.0
0.75384766,0.0,0.00888153,128.0
0.7343773,0.0,0.0057678744,128.0
0.7343943,0.0,0.0028839435,128.0
0.7578,0.0,-3.312449E-8,128.0
0.7343943,0.0,-0.0028839202,128.0
0.7343773,0.0,-0.005767851,128.0
0.734349,0.0,-0.008651781,128.0
0.73820895,0.0,-0.0115967505,128.0
0.7576539,0.0,-0.014878361,128.0
0.7380951,0.0,-0.017394125,128.0
0.73802114,0.0,-0.02029248,128.0
0.7379357,0.0,-0.023190606,128.0
0.7573268,0.0,-0.02677733,128.0
0.7338338,0.0,-0.028832365,128.0
0.73761135,0.0,-0.031882312,128.0
0.7335847,0.0,-0.034594934,128.0
0.7568127,0.0,-0.038669605,128.0
0.75665504,0.0,-0.041641295,128.0
0.7331262,0.0,-0.04323468,128.0
0.7329508,0.0,-0.04611332,128.0
0.73276407,0.0,-0.048991248,128.0
0.73256606,0.0,-0.05186851,128.0
0.7284676,0.0,-0.054454077,128.0
0.75157595,0.0,-0.05915028,128.0
0.73190415,0.0,-0.060494963,128.0
0.71213406,0.0,-0.061677467,128.0
0.73140645,0.0,-0.066241495,128.0
0.75055414,0.0,-0.07094823,128.0
0.7269824,0.0,-0.071601495,128.0
0.7305753,0.0,-0.07485329,128.0
0.73027575,0.0,-0.07772168,128.0
0.7260884,0.0,-0.080160975,128.0
0.75289124,0.0,-0.08611389,128.0
0.7486743,0.0,-0.088611424,128.0
0.7250937,0.0,-0.08870916,128.0
0.7247398,0.0,-0.0915559,128.0
0.74757844,0.0,-0.097425275,128.0
0.7471901,0.0,-0.100360155,128.0
0.7274741,0.0,-0.10062184,128.0
0.7232123,0.0,-0.10292833,128.0
0.742097,0.0,-0.10859095,128.0
0.7455215,0.0,-0.112084135,128.0
0.74122125,0.0,-0.11441596,128.0
0.74461824,0.0,-0.117935926,128.0
0.7402998,0.0,-0.12023391,128.0
0.739822,0.0,-0.12314013,128.0
0.7393327,0.0,-0.12604445,128.0
0.71578044,0.0,-0.124923676,128.0
0.73831993,0.0,-0.1318472,128.0
0.7377965,0.0,-0.13474557,128.0
0.73726165,0.0,-0.13764174,128.0
0.7137299,0.0,-0.13615125,128.0
0.7361579,0.0,-0.14342797,128.0
0.7355889,0.0,-0.14631775,128.0
0.7120764,0.0,-0.14455006,128.0
0.73059815,0.0,-0.15129952,128.0
0.7299984,0.0,-0.15416749,128.0
0.7103241,0.0,-0.15292878,128.0
0.7325744,0.0,-0.16073188,128.0
0.7281315,0.0,-0.16275668,128.0
0.7274867,0.0,-0.16561471,128.0
0.7268308,0.0,-0.16847034,128.0
0.7261636,0.0,-0.1713233,128.0
0.7254852,0.0,-0.17417361,128.0
0.70206386,0.0,-0.17146921,128.0
0.7203099,0.0,-0.17892584,128.0
0.72338295,0.0,-0.18270825,128.0
0.7264374,0.0,-0.18651745,128.0
0.7219257,0.0,-0.18838398,128.0
0.7211804,0.0,-0.19121742,128.0
0.7204239,0.0,-0.19404803,128.0
0.7196563,0.0,-0.1968757,128.0
0.73766613,0.0,-0.20491964,128.0
0.71808785,0.0,-0.20252174,128.0
0.7322846,0.0,-0.20963341,128.0
0.7164751,0.0,-0.20815521,128.0
0.7306155,0.0,-0.21537833,128.0
0.7148182,0.0,-0.213776,128.0
0.71397316,0.0,-0.21658143,128.0
0.7093896,0.0,-0.21823668,128.0
0.7122502,0.0,-0.22218214,128.0
0.726246,0.0,-0.2296815,128.0
0.7067694,0.0,-0.22657873,128.0
0.7244197,0.0,-0.23537819,128.0
0.7049681,0.0,-0.23212256,128.0
0.70405114,0.0,-0.23488916,128.0
0.72159654,0.0,-0.24389613,128.0
0.72063315,0.0,-0.24672793,128.0
0.70123506,0.0,-0.24316709,128.0
0.7518849,0.0,-0.26404312,128.0
0.7066528,0.0,-0.25128034,128.0
0.71666884,0.0,-0.25801674,128.0
0.7156501,0.0,-0.2608291,128.0
0.7366679,0.0,-0.27177107,128.0
0.71357954,0.0,-0.26644158,128.0
0.7125277,0.0,-0.26924175,128.0
0.7223933,0.0,-0.27621645,128.0
0.71039116,0.0,-0.27482957,128.0
0.7202016,0.0,-0.28188145,128.0
0.6973324,0.0,-0.2760934,128.0
0.73978114,0.0,-0.2962658,128.0
0.7168309,0.0,-0.29034647,128.0
0.7156852,0.0,-0.29315913,128.0
0.703719,0.0,-0.29148993,128.0
0.7133607,0.0,-0.29877102,128.0
0.73382175,0.0,-0.31073335,128.0
0.71099216,0.0,-0.30436456,128.0
0.7242002,0.0,-0.3133894,128.0
0.68714094,0.0,-0.3005616,128.0
0.70022327,0.0,-0.30956545,128.0
0.7275795,0.0,-0.32508108,128.0
0.74762404,0.0,-0.3375653,128.0
0.6965278,0.0,-0.3177931,128.0
0.7236992,0.0,-0.33363003,128.0
0.7223836,0.0,-0.3364692,128.0
0.7210567,0.0,-0.3393034,128.0
0.7126741,0.0,-0.33878377,128.0
0.7183695,0.0,-0.34495622,128.0
0.7170094,0.0,-0.34777442,128.0
0.72964746,0.0,-0.3574505,128.0
0.72823817,0.0,-0.36031303,128.0
0.7058851,0.0,-0.3527109,128.0
0.7044946,0.0,-0.3554802,128.0
0.7239429,0.0,-0.3688672,128.0
0.72248876,0.0,-0.37170726,128.0
0.72102344,0.0,-0.3745416,128.0
0.71954703,0.0,-0.37737033,128.0
0.73873967,0.0,-0.39114264,128.0
0.7165611,0.0,-0.38300976,128.0
0.7150515,0.0,-0.38582075,128.0
0.71353084,0.0,-0.38862574,128.0
0.7119991,0.0,-0.39142495,128.0
0.7104566,0.0,-0.3942178,128.0
0.6986949,0.0,-0.39128783,128.0
0.71752423,0.0,-0.40554237,128.0
0.7159261,0.0,-0.40835693,128.0
0.71431684,0.0,-0.4111654,128.0
0.70257974,0.0,-0.40809068,128.0
0.69087774,0.0,-0.40493038,128.0
0.7094236,0.0,-0.41955182,128.0
0.7077706,0.0,-0.42233452,128.0
0.70610654,0.0,-0.42511085,128.0
0.69443196,0.0,-0.42180625,128.0
0.7160472,0.0,-0.43879423,128.0
0.7143186,0.0,-0.44160277,128.0
0.71928215,0.0,-0.44858497,128.0
0.6976239,0.0,-0.43889236,128.0
0.7090666,0.0,-0.4499873,128.0
0.7139476,0.0,-0.4570275,128.0
0.71214736,0.0,-0.45982766,128.0
0.71033615,0.0,-0.46262068,128.0
0.70191103,0.0,-0.4610693,128.0
0.70009506,0.0,-0.46382213,128.0
0.714565,0.0,-0.47745702,128.0
0.70298195,0.0,-0.47372106,128.0
0.6945823,0.0,-0.47203755,128.0
0.7088906,0.0,-0.48584196,128.0
0.70697725,0.0,-0.48862198,128.0
0.69545436,0.0,-0.48470458,128.0
0.6870822,0.0,-0.48288935,128.0
0.70117193,0.0,-0.49691677,128.0
0.7055613,0.0,-0.5042015,128.0
0.71306825,0.0,-0.51380813,128.0
0.7015796,0.0,-0.5097273,128.0
0.69328016,0.0,-0.507869,128.0
0.6975546,0.0,-0.5152218,128.0
0.68927,0.0,-0.5132983,128.0
0.61847615,0.0,-0.46436498,128.0
0.56059617,0.0,-0.4243602,128.0
0.54962456,0.0,-0.41946015,128.0
0.5108022,0.0,-0.3930157,128.0
0.4938469,0.0,-0.38306686,128.0
0.44003272,0.0,-0.34410053,128.0
0.39878392,0.0,-0.31437588,128.0
0.3608292,0.0,-0.28675964,128.0
0.39630255,0.0,-0.3174982,128.0
0.358566,0.0,-0.28958464,128.0
0.37565017,0.0,-0.3058273,128.0
0.37444627,0.0,-0.3073001,128.0
0.3551295,0.0,-0.29378882,128.0
0.35397312,0.0,-0.295181,128.0
0.35281125,0.0,-0.2965688,128.0
0.3695732,0.0,-0.31314373,128.0
0.3504711,0.0,-0.2993306,128.0
0.3671024,0.0,-0.31603667,128.0
0.3481094,0.0,-0.30207393,128.0
0.34692046,0.0,-0.30343863,128.0
0.36335382,0.0,-0.32033947,128.0
0.3445266,0.0,-0.30615392,128.0
0.34332168,0.0,-0.30750453,128.0
0.35955477,0.0,-0.32459778,128.0
0.35827732,0.0,-0.32600725,128.0
0.33967522,0.0,-0.3115278,128.0
0.33844924,0.0,-0.31285927,128.0
0.33721805,0.0,-0.31418595,128.0
0.31892377,0.0,-0.29948938,128.0
0.3177452,0.0,-0.30073944,128.0
0.33349338,0.0,-0.31813672,128.0
0.33224145,0.0,-0.31944397,128.0
0.3309844,0.0,-0.3207462,128.0
0.31298223,0.0,-0.30569327,128.0
0.3284551,0.0,-0.32333583,128.0
0.3271829,0.0,-0.3246231,128.0
0.3259055,0.0,-0.3259055,128.0
0.30814198,0.0,-0.3105717,128.0
0.30692,0.0,-0.31177935,128.0
0.30569327,0.0,-0.31298223,128.0
0.3207463,0.0,-0.33098432,128.0
0.3032257,0.0,-0.31537345,128.0
0.3181368,0.0,-0.33349332,128.0
0.30073944,0.0,-0.3177452,128.0
0.31550774,0.0,-0.33598164,128.0
0.30089328,0.0,-0.32295078,128.0
0.2969753,0.0,-0.3212661,128.0
0.29571143,0.0,-0.32242987,128.0
0.31019145,0.0,-0.34089598,128.0
0.29316998,0.0,-0.32474238,128.0
0.30750462,0.0,-0.34332162,128.0
0.30615392,0.0,-0.3445266,128.0
0.30479863,0.0,-0.34572622,128.0
0.30343863,0.0,-0.3469205,128.0
0.28929362,0.0,-0.33338138,128.0
0.30070466,0.0,-0.34929287,128.0
0.2993306,0.0,-0.35047114,128.0
0.2828249,0.0,-0.33379084,128.0
0.2840214,0.0,-0.3378843,128.0
0.2801946,0.0,-0.3360018,128.0
0.26644328,0.0,-0.3220745,128.0
0.29239187,0.0,-0.35628054,128.0
0.2786791,0.0,-0.3423038,128.0
0.27488244,0.0,-0.34036142,128.0
0.27598208,0.0,-0.34448197,128.0
0.2722008,0.0,-0.3425098,128.0
0.28534037,0.0,-0.36195257,128.0
0.27190468,0.0,-0.34770936,128.0
0.27053723,0.0,-0.34877434,128.0
0.26916546,0.0,-0.3498341,128.0
0.27961996,0.0,-0.3663898,128.0
0.26405573,0.0,-0.34882778,128.0
0.25097564,0.0,-0.3342682,128.0
0.26363733,0.0,-0.35401878,128.0
0.27383038,0.0,-0.37073675,128.0
0.2585441,0.0,-0.3529323,128.0
0.24340184,0.0,-0.33501396,128.0
0.24208437,0.0,-0.33596718,128.0
0.25436834,0.0,-0.35595366,128.0
0.22359522,0.0,-0.3155029,128.0
0.23810974,0.0,-0.33879575,128.0
0.23454739,0.0,-0.3365287,128.0
0.21542805,0.0,-0.3116985,128.0
0.21420243,0.0,-0.31254202,128.0
0.21297336,0.0,-0.31338084,128.0
0.19648506,0.0,-0.29157534,128.0
0.19100504,0.0,-0.2858593,128.0
0.19849688,0.0,-0.29961202,128.0
0.18875408,0.0,-0.28735054,128.0
0.17479935,0.0,-0.26839763,128.0
0.16316645,0.0,-0.25270012,128.0
0.15376224,0.0,-0.24020037,128.0
0.20511448,0.0,-0.32320875,128.0
0.22674154,0.0,-0.36040798,128.0
0.22326058,0.0,-0.35798648,128.0
0.19514033,0.0,-0.31565085,128.0
0.19186151,0.0,-0.31308943,128.0
0.23522511,0.0,-0.387258,128.0
0.24381204,0.0,-0.40497035,128.0
0.24421817,0.0,-0.40927377,128.0
0.29427692,0.0,-0.49759495,128.0
0.35749987,0.0,-0.60995317,128.0
0.37474027,0.0,-0.64516276,128.0
0.4267799,0.0,-0.74144393,128.0
0.44511998,0.0,-0.7803786,128.0
0.001918971,0.0,-0.0033952245,128.0
0.515349,0.0,-0.9202215,128.0
0.50416213,0.0,-0.9085975,128.0
0.51374227,0.0,-0.9344935,128.0
0.51006836,0.0,-0.9365038,128.0
0.49527532,0.0,-0.9179059,128.0
0.49350536,0.0,-0.92328334,128.0
0.43685916,0.0,-0.8250837,128.0
0.34834182,0.0,-0.66419727,128.0
0.2791199,0.0,-0.53732884,128.0
0.287713,0.0,-0.5592284,128.0
0.21814248,0.0,-0.42812863,128.0
0.16014846,0.0,-0.31738418,128.0
0.120460756,0.0,-0.24107976,128.0
0.10221803,0.0,-0.20659555,128.0
0.07734132,0.0,-0.15787324,128.0
0.07501876,0.0,-0.15466674,128.0
0.089604594,0.0,-0.18660122,128.0
0.08887117,0.0,-0.18695164,128.0
0.074851975,0.0,-0.1590686,128.0
0.084106795,0.0,-0.18057323,128.0
0.09323554,0.0,-0.20224348,128.0
0.082685955,0.0,-0.18122825,128.0
0.098063886,0.0,-0.21718739,128.0
0.089255564,0.0,-0.19976707,128.0
0.07739138,0.0,-0.1750558,128.0
0.086080864,0.0,-0.19679718,128.0
0.08220959,0.0,-0.18997523,128.0
0.081462964,0.0,-0.19029658,128.0
0.09596121,0.0,-0.22662006,128.0
0.09205734,0.0,-0.21980067,128.0
0.082200415,0.0,-0.19844931,128.0
0.08884986,0.0,-0.21690796,128.0
0.07039043,0.0,-0.17378561,128.0
0.090043426,0.0,-0.22484,128.0
0.06902336,0.0,-0.1743331,128.0
0.08116759,0.0,-0.20738156,128.0
0.070466325,0.0,-0.1821444,128.0
0.07953633,0.0,-0.20801266,128.0
0.062140882,0.0,-0.16445105,128.0
0.05740197,0.0,-0.15373297,128.0
0.0635471,0.0,-0.17225191,128.0
0.070883006,0.0,-0.19448549,128.0
0.07143983,0.0,-0.19843175,128.0
0.069353394,0.0,-0.19503617,128.0
0.059541427,0.0,-0.16954914,128.0
0.060152907,0.0,-0.17346638,128.0
0.074662924,0.0,-0.21807268,128.0
0.06753012,0.0,-0.19979613,128.0
0.06924517,0.0,-0.20755371,128.0
0.0696493,0.0,-0.2115284,128.0
0.060351025,0.0,-0.18574134,128.0
0.057239935,0.0,-0.17854926,128.0
0.06359436,0.0,-0.20108347,128.0
0.06515677,0.0,-0.20887326,128.0
0.06201311,0.0,-0.20157674,128.0
0.04876783,0.0,-0.16076598,128.0
0.0705137,0.0,-0.23578173,128.0
0.06958724,0.0,-0.23605682,128.0
0.050134707,0.0,-0.17256477,128.0
0.056970112,0.0,-0.19900605,128.0
0.053012323,0.0,-0.1879675,128.0
0.046010554,0.0,-0.16562802,128.0
0.06391006,0.0,-0.2336158,128.0
0.03453905,0.0,-0.12822984,128.0
0.034035232,0.0,-0.12836449,128.0
0.037469752,0.0,-0.1435917,128.0
0.03690558,0.0,-0.14373773,128.0
0.04591582,0.0,-0.18179105,128.0
0.041440804,0.0,-0.16683006,128.0
0.02225518,0.0,-0.09112161,128.0
0.034643292,0.0,-0.14429969,128.0
0.04036809,0.0,-0.17110248,128.0
0.034389533,0.0,-0.1483666,128.0
0.03120954,0.0,-0.1370924,128.0
0.03834962,0.0,-0.17156614,128.0
0.035168134,0.0,-0.16028729,128.0
0.03205485,0.0,-0.14888847,128.0
0.03146992,0.0,-0.1490132,128.0
0.030884504,0.0,-0.14913563,128.0
0.026419308,0.0,-0.13014553,128.0
0.03201432,0.0,-0.16094688,128.0
0.035856992,0.0,-0.18403947,128.0
0.040999025,0.0,-0.21492444,128.0
0.035126194,0.0,-0.18814918,128.0
0.042813208,0.0,-0.23442252,128.0
0.039835434,0.0,-0.22307107,128.0
0.04298227,0.0,-0.24627733,128.0
0.038082227,0.0,-0.22337705,128.0
0.036564406,0.0,-0.2196778,128.0
0.026932433,0.0,-0.16582716,128.0
0.03360212,0.0,-0.21215546,128.0
0.032173764,0.0,-0.20843141,128.0
0.028455898,0.0,-0.18927288,128.0
0.031679597,0.0,-0.21649444,128.0
0.026419017,0.0,-0.18562943,128.0
0.020332627,0.0,-0.14700049,128.0
0.024960246,0.0,-0.1858312,128.0
0.018673481,0.0,-0.14328836,128.0
0.02007838,0.0,-0.15893678,128.0
0.019927723,0.0,-0.16288553,128.0
0.020663068,0.0,-0.17458142,128.0
0.020863695,0.0,-0.1824107,128.0
0.015428671,0.0,-0.1397509,128.0
0.014054244,0.0,-0.13205422,128.0
0.013138088,0.0,-0.12822871,128.0
0.013398938,0.0,-0.13604176,128.0
0.013965665,0.0,-0.14774139,128.0
0.014097981,0.0,-0.15566288,128.0
0.01348655,0.0,-0.15571705,128.0
0.015445041,0.0,-0.18686278,128.0
0.013793099,0.0,-0.17525807,128.0
0.012232598,0.0,-0.16364345,128.0
0.009930179,0.0,-0.1402489,128.0
0.01224781,0.0,-0.18319102,128.0
0.011528372,0.0,-0.1832377,128.0
0.010349476,0.0,-0.17549509,128.0
0.010517452,0.0,-0.19111082,128.0
0.010562979,0.0,-0.20673032,128.0
0.009016162,0.0,-0.19118753,128.0
0.008433764,0.0,-0.1951178,128.0
0.007973653,0.0,-0.20294341,128.0
0.0071766376,0.0,-0.20297316,128.0
0.0069952123,0.0,-0.2225901,128.0
0.0049391263,0.0,-0.17963211,128.0
0.004785021,0.0,-0.20304362,128.0
0.004372406,0.0,-0.22265707,128.0
0.003436743,0.0,-0.21877299,128.0
0.0023008012,0.0,-0.19528645,128.0
0.0015338503,0.0,-0.19529398,128.0
6.597584E-4,0.0,-0.1679987,128.0
-1.673272E-8,-0.0,-0.1914,128.0
-6.597477E-4,-0.0,-0.1679987,128.0
-0.0015032084,-0.0,-0.1913941,128.0
-0.0018872828,-0.0,-0.16018888,128.0
-0.002761321,-0.0,-0.1757783,128.0
-0.0039110035,-0.0,-0.1991616,128.0
-0.003588167,-0.0,-0.15225773,128.0
-0.0049391147,-0.0,-0.17963211,128.0
-0.005889536,-0.0,-0.18740748,128.0
-0.0063497755,-0.0,-0.17958778,128.0
-0.006748739,-0.0,-0.17176747,128.0
-0.0067495923,-0.0,-0.15615419,128.0
-0.0075464323,-0.0,-0.16002215,128.0
-0.006577615,-0.0,-0.12873207,128.0
-0.009874525,-0.0,-0.17942849,128.0
-0.006899643,-0.0,-0.116996735,128.0
-0.01226301,-0.0,-0.19491462,128.0
-0.01459596,-0.0,-0.2183126,128.0
-0.015728656,-0.0,-0.22214387,128.0
-0.015721224,-0.0,-0.21031322,128.0
-0.015935019,-0.0,-0.20247391,128.0
-0.014481259,-0.0,-0.17520255,128.0
-0.01887943,-0.0,-0.21798395,128.0
-0.015153291,-0.0,-0.1673152,128.0
-0.0154431565,-0.0,-0.16337173,128.0
-0.026033323,-0.0,-0.26432106,128.0
-0.026276158,-0.0,-0.25645742,128.0
-0.029346686,-0.0,-0.27574274,128.0
-0.035147943,-0.0,-0.3183657,128.0
-0.026636425,-0.0,-0.23288165,128.0
-0.028009137,-0.0,-0.2366482,128.0
-0.03463366,-0.0,-0.28308928,128.0
-0.02447756,-0.0,-0.19376001,128.0
-0.01968149,-0.0,-0.15102294,128.0
-0.022883542,-0.0,-0.17037006,128.0
-0.023552405,-0.0,-0.17027888,128.0
-0.019810732,-0.0,-0.13919732,128.0
-0.021486517,-0.0,-0.14683627,128.0
-0.027876064,-0.0,-0.18541622,128.0
-0.029793901,-0.0,-0.19301403,128.0
-0.03422784,-0.0,-0.2161062,128.0
-0.033809807,-0.0,-0.20817229,128.0
-0.03656439,-0.0,-0.2196778,128.0
-0.03216653,-0.0,-0.1886777,128.0
-0.037618067,-0.0,-0.21554191,128.0
-0.032961786,-0.0,-0.18457998,128.0
-0.041411836,-0.0,-0.22674944,128.0
-0.034410447,-0.0,-0.18431541,128.0
-0.038787916,-0.0,-0.20333347,128.0
-0.033619504,-0.0,-0.1725554,128.0
-0.034296867,-0.0,-0.17242205,128.0
-0.03264614,-0.0,-0.1608199,128.0
-0.030884497,-0.0,-0.14913563,128.0
-0.040355045,-0.0,-0.19108522,128.0
-0.03946344,-0.0,-0.18329999,128.0
-0.049398247,-0.0,-0.22514454,128.0
-0.04345417,-0.0,-0.19440262,128.0
-0.04856789,-0.0,-0.2133415,128.0
-0.037934605,-0.0,-0.16366114,128.0
-0.043950234,-0.0,-0.18628564,128.0
-0.04286056,-0.0,-0.1785271,128.0
-0.040785376,-0.0,-0.1669915,128.0
-0.048022144,-0.0,-0.1933249,128.0
-0.06888596,-0.0,-0.27273506,128.0
-0.0582929,-0.0,-0.2270359,128.0
-0.047342163,-0.0,-0.18142483,128.0
-0.048054293,-0.0,-0.18123752,128.0
-0.047751267,-0.0,-0.17728163,128.0
-0.05876452,-0.0,-0.21480693,128.0
-0.05122989,-0.0,-0.18441655,128.0
-0.06680149,-0.0,-0.23686023,128.0
-0.07095117,-0.0,-0.24784426,128.0
-0.0686597,-0.0,-0.23632827,128.0
-0.064073406,-0.0,-0.21735263,128.0
-0.063809015,-0.0,-0.21336283,128.0
-0.07596749,-0.0,-0.2504313,128.0
-0.062013097,-0.0,-0.20157674,128.0
-0.07560924,-0.0,-0.2423808,128.0
-0.0659765,-0.0,-0.20861576,128.0
-0.059621148,-0.0,-0.18597691,128.0
-0.056735516,-0.0,-0.17461397,128.0
-0.07208873,-0.0,-0.21893711,128.0
-0.058105163,-0.0,-0.17416298,128.0
-0.06253499,-0.0,-0.18501747,128.0
-0.056944676,-0.0,-0.16632181,128.0
-0.051208593,-0.0,-0.14767317,128.0
-0.095789775,-0.0,-0.27276936,128.0
-0.12041355,-0.0,-0.33862802,128.0
-0.11777917,-0.0,-0.32714424,128.0
-0.21668963,-0.0,-0.59454304,128.0
-0.29475328,-0.0,-0.7989637,128.0
-0.0013642147,-0.0,-0.003653617,128.0
-0.3700528,-0.0,-0.9793164,128.0
-0.3920387,-0.0,-1.0253053,128.0
-0.40309763,-0.0,-1.0419444,128.0
-0.41145077,-0.0,-1.0512486,128.0
-0.4256624,-0.0,-1.0751005,128.0
-0.43858054,-0.0,-1.0951434,128.0
-0.45312658,-0.0,-1.1187159,128.0
-0.45899433,-0.0,-1.1205369,128.0
-0.46641454,-0.0,-1.1260242,128.0
-0.47233945,-0.0,-1.1277813,128.0
-0.479806,-0.0,-1.1331003,128.0
-0.48425198,-0.0,-1.1312073,128.0
-0.49953234,-0.0,-1.1543518,128.0
-0.49312145,-0.0,-1.1273693,128.0
-0.4975448,-0.0,-1.1254241,128.0
-0.5099152,-0.0,-1.1412654,128.0
-0.5063684,-0.0,-1.1214817,128.0
-0.52210027,-0.0,-1.1443217,128.0
-0.5265902,-0.0,-1.1422625,128.0
-0.53930515,-0.0,-1.1578624,128.0
-0.5438479,-0.0,-1.1557356,128.0
-0.5483823,-0.0,-1.153591,128.0
-0.5410905,-0.0,-1.126819,128.0
-0.55572355,-0.0,-1.1457394,128.0
-0.549924,-0.0,-1.1225344,128.0
-0.5647049,-0.0,-1.1413394,128.0
-0.55872333,-0.0,-1.1181808,128.0
-0.5736512,-0.0,-1.1368693,128.0
-0.5781115,-0.0,-1.1346077,128.0
-0.5825626,-0.0,-1.1323286,128.0
-0.5762178,-0.0,-1.109267,128.0
-0.5914379,-0.0,-1.1277183,128.0
-0.59586155,-0.0,-1.1253872,128.0
-0.6113545,-0.0,-1.1437637,128.0
-0.59171855,-0.0,-1.0966468,128.0
-0.6203184,-0.0,-1.138927,128.0
-0.63793826,-0.0,-1.1604053,128.0
-0.61784226,-0.0,-1.1134714,128.0
-0.63559854,-0.0,-1.1349428,128.0
-0.62656856,-0.0,-1.1085843,128.0
-0.63091683,-0.0,-1.1061155,128.0
-0.63525593,-0.0,-1.1036291,128.0
-0.651388,-0.0,-1.1214471,128.0
-0.64390415,-0.0,-1.0986059,128.0
-0.6601759,-0.0,-1.1162963,128.0
-0.6645542,-0.0,-1.1136954,128.0
-0.6809922,-0.0,-1.131124,128.0
-0.68542856,-0.0,-1.1284413,128.0
-0.67762846,-0.0,-1.1057891,128.0
-0.6922196,-0.0,-1.1197058,128.0
-0.69661105,-0.0,-1.116979,128.0
-0.68853164,-0.0,-1.0944282,128.0
-0.70536226,-0.0,-1.1114734,128.0
-0.6971059,-0.0,-1.0889869,128.0
-0.71407014,-0.0,-1.1058991,128.0
-0.7184072,-0.0,-1.1030867,128.0
-0.72059256,-0.0,-1.0969971,128.0
-0.6968377,-0.0,-1.0518099,128.0
-0.73351943,-0.0,-1.0977892,128.0
-0.72038937,-0.0,-1.0690267,128.0
-0.7091805,-0.0,-1.0435277,128.0
-0.7220922,-0.0,-1.0536025,128.0
-0.6884714,-0.0,-0.9961355,128.0
-0.84430194,-0.0,-1.2114049,128.0
-1.0264995,-0.0,-1.4605608,128.0
-1.0864055,-0.0,-1.5329672,128.0
-0.92892396,-0.0,-1.2999022,128.0
-0.8129498,-0.0,-1.1282202,128.0
-0.6635507,-0.0,-0.9132994,128.0
-0.69945765,-0.0,-0.954813,128.0
-0.66375196,-0.0,-0.89864856,128.0
-0.7302885,-0.0,-0.98064977,128.0
-0.4503151,-0.0,-0.5997636,128.0
-0.47861978,-0.0,-0.63227534,128.0
-0.47157425,-0.0,-0.6179102,128.0
-0.49784017,-0.0,-0.64704263,128.0
-0.5003774,-0.0,-0.6450825,128.0
-0.55341905,-0.0,-0.7077075,128.0
-0.53204924,-0.0,-0.6749014,128.0
-0.59541976,-0.0,-0.74921584,128.0
-0.7058364,-0.0,-0.88102806,128.0
-0.697039,-0.0,-0.86307883,128.0
-0.65111405,-0.0,-0.7997688,128.0
-0.6666204,-0.0,-0.81227946,128.0
-0.5851553,-0.0,-0.70733106,128.0
-0.5728778,-0.0,-0.68697983,128.0
-0.6132779,-0.0,-0.729582,128.0
-0.54800147,-0.0,-0.6467532,128.0
-0.5454064,-0.0,-0.63858896,128.0
-0.5377321,-0.0,-0.62461966,128.0
-0.550405,-0.0,-0.6342857,128.0
-0.4912033,-0.0,-0.5615911,128.0
-0.52184117,-0.0,-0.5919127,128.0
-0.5319333,-0.0,-0.59860474,128.0
-0.49778515,-0.0,-0.5557654,128.0
-0.5104172,-0.0,-0.5653858,128.0
-0.48901084,-0.0,-0.537416,128.0
-0.46468934,-0.0,-0.5066755,128.0
-0.49056926,-0.0,-0.5306949,128.0
-0.4127568,-0.0,-0.44301474,128.0
-0.44386032,-0.0,-0.4726633,128.0
-0.4323086,-0.0,-0.45675424,128.0
-0.43679094,-0.0,-0.45787495,128.0
-0.40607983,-0.0,-0.42234814,128.0
-0.41323307,-0.0,-0.42642334,128.0
-0.45305488,-0.0,-0.4638576,128.0
-0.41656932,-0.0,-0.42316478,128.0
-0.41266373,-0.0,-0.4159176,128.0
-0.3812012,-0.0,-0.3812013,128.0
-0.3715503,-0.0,-0.3686434,128.0
-0.38696268,-0.0,-0.3809316,128.0
-0.42479733,-0.0,-0.41490442,128.0
-0.38994253,-0.0,-0.37788066,128.0
-0.39142346,-0.0,-0.37634644,128.0
-0.3392096,-0.0,-0.3235897,128.0
-0.38870227,-0.0,-0.36789888,128.0
-0.38154215,-0.0,-0.35829198,128.0
-0.4115538,-0.0,-0.38344458,128.0
-0.3757528,-0.0,-0.34734234,128.0
-0.40880424,-0.0,-0.37492824,128.0
-0.3293577,-0.0,-0.2996925,128.0
-0.38850322,-0.0,-0.35073182,128.0
-0.36082667,-0.0,-0.32318336,128.0
-0.39715117,-0.0,-0.35291734,128.0
-0.3223228,-0.0,-0.28416565,128.0
-0.39396435,-0.0,-0.34458622,128.0
-0.35407612,-0.0,-0.30725163,128.0
-0.36710238,-0.0,-0.3160367,128.0
-0.35047117,-0.0,-0.29933056,128.0
-0.39932826,-0.0,-0.33835557,128.0
-0.40670115,-0.0,-0.34186822,128.0
-0.40804058,-0.0,-0.34026837,128.0
-0.4243986,-0.0,-0.35109326,128.0
-0.4287889,-0.0,-0.35189798,128.0
-0.44528973,-0.0,-0.36252266,128.0
-0.41333497,-0.0,-0.33381715,128.0
-0.3871716,-0.0,-0.3101828,128.0
-0.38838664,-0.0,-0.3086601,128.0
-0.4172388,-0.0,-0.32892472,128.0
-0.48004997,-0.0,-0.37539357,128.0
-0.41980928,-0.0,-0.3256376,128.0
-0.43035778,-0.0,-0.3311211,128.0
-0.42235386,-0.0,-0.32233045,128.0
-0.426726,-0.0,-0.32302317,128.0
-0.46853533,-0.0,-0.3517861,128.0
-0.4918889,-0.0,-0.36630893,128.0
-0.47128376,-0.0,-0.34809542,128.0
-0.4317472,-0.0,-0.31628057,128.0
-0.47400296,-0.0,-0.34438348,128.0
-0.5102385,-0.0,-0.36765727,128.0
-0.5116782,-0.0,-0.36565086,128.0
-0.49720052,-0.0,-0.3523634,128.0
-0.49538955,-0.0,-0.3481658,128.0
-0.41659984,-0.0,-0.29035392,128.0
-0.39848715,-0.0,-0.27541128,128.0
-0.4382518,-0.0,-0.30035824,128.0
-0.3747503,-0.0,-0.2546799,128.0
-0.37574744,-0.0,-0.25320637,128.0
-0.35079697,-0.0,-0.23439516,128.0
-0.40706882,-0.0,-0.26968846,128.0
-0.35914636,-0.0,-0.23591518,128.0
-0.36660615,-0.0,-0.23875967,128.0
-0.3577118,-0.0,-0.23097168,128.0
-0.35204682,-0.0,-0.22535983,128.0
-0.33967316,-0.0,-0.21556303,128.0
-0.32071066,-0.0,-0.2017669,128.0
-0.34135562,-0.0,-0.21288878,128.0
-0.2890277,-0.0,-0.1786814,128.0
-0.30976412,-0.0,-0.18982379,128.0
-0.31717378,-0.0,-0.19265516,128.0
-0.32126904,-0.0,-0.19341977,128.0
-0.28844956,-0.0,-0.17212106,128.0
-0.3429196,-0.0,-0.20280218,128.0
-0.28979248,-0.0,-0.16985029,128.0
-0.31077805,-0.0,-0.18051414,128.0
-0.28435743,-0.0,-0.1636779,128.0
-0.2816103,-0.0,-0.16062775,128.0
-0.29581985,-0.0,-0.16719645,128.0
-0.24883583,-0.0,-0.13935483,128.0
-0.22542243,-0.0,-0.12508228,128.0
-0.23958223,-0.0,-0.13171151,128.0
-0.2573102,-0.0,-0.14014445,128.0
-0.25785854,-0.0,-0.13913298,128.0
-0.22391981,-0.0,-0.11968762,128.0
-0.23472819,-0.0,-0.12428209,128.0
-0.23866822,-0.0,-0.12517078,128.0
-0.2391579,-0.0,-0.124232635,128.0
-0.23964393,-0.0,-0.123292446,128.0
-0.23665132,-0.0,-0.12057992,128.0
-0.25810343,-0.0,-0.13023607,128.0
-0.24107975,-0.0,-0.12046078,128.0
-0.25212723,-0.0,-0.124745935,128.0
-0.22100456,-0.0,-0.108269066,128.0
-0.22142805,-0.0,-0.1074003,128.0
-0.2113011,-0.0,-0.10146527,128.0
-0.21874246,-0.0,-0.10398353,128.0
-0.25452784,-0.0,-0.119771756,128.0
-0.2407643,-0.0,-0.11214235,128.0
-0.21995226,-0.0,-0.10139943,128.0
-0.25592119,-0.0,-0.116764866,128.0
-0.23140527,-0.0,-0.10448352,128.0
-0.28887707,-0.0,-0.1290697,128.0
-0.2679799,-0.0,-0.118472725,128.0
-0.2684431,-0.0,-0.11741939,128.0
-0.25091413,-0.0,-0.10858028,128.0
-0.28728348,-0.0,-0.12298148,128.0
-0.27339903,-0.0,-0.11576957,128.0
-0.29183775,-0.0,-0.122228,128.0
-0.30312487,-0.0,-0.12555848,128.0
-0.28917974,-0.0,-0.11845386,128.0
-0.2751837,-0.0,-0.111460924,128.0
-0.28286022,-0.0,-0.11327918,128.0
-0.31231192,-0.0,-0.12365309,128.0
-0.28010947,-0.0,-0.1096327,128.0
-0.32791588,-0.0,-0.12686113,128.0
-0.28824747,-0.0,-0.1102151,128.0
-0.3617362,-0.0,-0.13668877,128.0
-0.3952464,-0.0,-0.1475802,128.0
-0.4250945,-0.0,-0.15682569,128.0
-0.42204285,-0.0,-0.15381958,128.0
-0.32714424,-0.0,-0.11777922,128.0
-0.40119037,-0.0,-0.1426602,128.0
-0.41278657,-0.0,-0.14496039,128.0
-0.372726,-0.0,-0.12925006,128.0
-0.47304267,-0.0,-0.16195877,128.0
-0.42185503,-0.0,-0.14258486,128.0
-0.4743001,-0.0,-0.15823855,128.0
-0.4192574,-0.0,-0.13804774,128.0
-0.42350546,-0.0,-0.13760531,128.0
-0.46127605,-0.0,-0.14787748,128.0
-0.39854383,-0.0,-0.12604292,128.0
-0.4250972,-0.0,-0.13260648,128.0
-0.4330698,-0.0,-0.13322972,128.0
-0.4298576,-0.0,-0.13039581,128.0
-0.41915688,-0.0,-0.12535453,128.0
-0.3897192,-0.0,-0.11488534,128.0
-0.34512955,-0.0,-0.10026944,128.0
-0.31542936,-0.0,-0.0902991,128.0
-0.24812096,-0.0,-0.06997737,128.0
-0.33501375,-0.0,-0.09306493,128.0
-0.33537662,-0.0,-0.091748685,128.0
-0.30551147,-0.0,-0.082290284,128.0
-0.2982928,-0.0,-0.07909093,128.0
-0.3326606,-0.0,-0.08680656,128.0
-0.3632187,-0.0,-0.09325874,128.0
-0.35223836,-0.0,-0.08896644,128.0
-0.3488,-0.0,-0.08664241,128.0
-0.3718694,-0.0,-0.09082403,128.0
-0.36463872,-0.0,-0.08754204,128.0
-0.3611839,-0.0,-0.08521381,128.0
-0.37291363,-0.0,-0.086436585,128.0
-0.3580393,-0.0,-0.08150895,128.0
-0.43457574,-0.0,-0.09713922,128.0
-0.38914356,-0.0,-0.0853807,128.0
-0.3818505,-0.0,-0.0822103,128.0
-0.37072292,-0.0,-0.07829247,128.0
-0.3710275,-0.0,-0.07683613,128.0
-0.34075,-0.0,-0.06917167,128.0
-0.37544462,-0.0,-0.074680604,128.0
-0.41028532,-0.0,-0.07993712,128.0
-0.79810846,-0.0,-0.15224698,128.0
-0.81020135,-0.0,-0.15125944,128.0
-0.7992795,-0.0,-0.14597441,128.0
-1.2690244,-0.0,-0.22661877,128.0
-1.8317124,-0.0,-0.31968507,128.0
-2.2449095,-0.0,-0.38272095,128.0
-2.362005,-0.0,-0.39314553,128.0
-2.3635304,-0.0,-0.3838675,128.0
-2.3650196,-0.0,-0.37458247,128.0
-2.4553204,-0.0,-0.37900624,128.0
-2.4567895,-0.0,-0.3693619,128.0
-2.5896215,-0.0,-0.37893975,128.0
-2.6026733,-0.0,-0.3704154,128.0
-2.3913333,-0.0,-0.33076105,128.0
-2.2725916,-0.0,-0.30524734,128.0
-2.1846268,-0.0,-0.2847024,128.0
-2.1741202,-0.0,-0.27465534,128.0
-2.1984086,-0.0,-0.2689576,128.0
-2.1955752,-0.0,-0.25986353,128.0
-2.2703974,-0.0,-0.2596822,128.0
-2.3373985,-0.0,-0.25805128,128.0
-2.3345158,-0.0,-0.2484582,128.0
-2.339353,-0.0,-0.23968561,128.0
-2.348039,-0.0,-0.23126227,128.0
-2.333398,-0.0,-0.22057115,128.0
-2.3342464,-0.0,-0.21140566,128.0
-2.3622565,-0.0,-0.20459364,128.0
-2.3552685,-0.0,-0.1946736,128.0
-2.3871186,-0.0,-0.18787035,128.0
-2.4813771,-0.0,-0.18548633,128.0
-2.509318,-0.0,-0.17766929,128.0
-2.517779,-0.0,-0.1683348,128.0
-2.5730126,-0.0,-0.16188028,128.0
-2.5697353,-0.0,-0.15154587,128.0
-2.543052,-0.0,-0.13995264,128.0
-2.543582,-0.0,-0.12996444,128.0
-2.52849,-0.0,-0.11924178,128.0
-2.6147585,-0.0,-0.113020405,128.0
-2.681531,-0.0,-0.105357654,128.0
-2.681924,-0.0,-0.09482588,128.0
-2.6627853,-0.0,-0.083681405,128.0
-2.6630936,-0.0,-0.07322468,128.0
-2.6672595,-0.0,-0.06285744,128.0
-2.6830826,-0.0,-0.052689604,128.0
-2.6676707,-0.0,-0.04190711,128.0
-2.6873136,-0.0,-0.031659972,128.0
-2.6679175,-0.0,-0.020955455,128.0
-2.6679795,-0.0,-0.010477793,128.0
-2.6719,-0.0,3.186209E-8,128.0
-2.6679795,-0.0,0.010477857,128.0
-2.6679177,-0.0,0.020954248,128.0
-2.667815,-0.0,0.031430315,128.0
-2.6676707,-0.0,0.041907173,128.0
-2.6674857,-0.0,0.052382108,128.0
-2.6672595,-0.0,0.06285751,128.0
-2.666992,-0.0,0.073331945,128.0
-2.6666837,-0.0,0.0838027,128.0
-2.666334,-0.0,0.09427471,128.0
-2.665943,-0.0,0.10474526,128.0
-2.6655111,-0.0,0.1152142,128.0
-2.6689339,-0.0,0.1258638,128.0
-2.6684191,-0.0,0.13634306,128.0
-2.6678631,-0.0,0.14682148,128.0
-2.667266,-0.0,0.15729636,128.0
-2.6627352,-0.0,0.1675252,128.0
-2.6425006,-0.0,0.17667355,128.0
-2.6613374,-0.0,0.18843164,128.0
-2.6644661,-0.0,0.19917256,128.0
-2.6597753,-0.0,0.20932898,128.0
-2.6783667,-0.0,0.22137918,128.0
-2.6580493,-0.0,0.23021214,128.0
-2.661009,-0.0,0.24099962,128.0
-2.6561594,-0.0,0.2510811,128.0
-2.6551528,-0.0,0.26150924,128.0
-2.6541054,-0.0,0.2719346,128.0
-2.653017,-0.0,0.28235576,128.0
-2.651888,-0.0,0.29277003,128.0
-2.6700914,-0.0,0.30539823,128.0
-2.6688714,-0.0,0.3158819,128.0
-2.6482546,-0.0,0.32399273,128.0
-2.6508315,-0.0,0.33487803,128.0
-2.6456285,-0.0,0.3447806,128.0
-2.644254,-0.0,0.3551679,128.0
-2.642839,-0.0,0.36554846,128.0
-2.6413832,-0.0,0.37592465,128.0
-2.6398864,-0.0,0.38629505,128.0
-2.653776,-0.0,0.39897624,128.0
-2.656043,-0.0,0.40999013,128.0
-2.6505604,-0.0,0.4198077,128.0
-2.6488914,-0.0,0.43021256,128.0
-2.627946,-0.0,0.43741038,128.0
-2.6454308,-0.0,0.45100343,128.0
-2.6244297,-0.0,0.4580365,128.0
-2.6418073,-0.0,0.47176647,128.0
-2.639934,-0.0,0.4821378,128.0
-2.6380203,-0.0,0.49250168,128.0
-2.6360662,-0.0,0.5028555,128.0
-2.634071,-0.0,0.51320404,128.0
-2.6320353,-0.0,0.5235446,128.0
-2.629959,-0.0,0.53387594,128.0
-2.6087472,-0.0,0.54024583,128.0
-2.6409483,-0.0,0.5577383,128.0
-2.6158624,-0.0,0.5631794,128.0
-2.6136303,-0.0,0.5734481,128.0
-2.6189702,-0.0,0.58540946,128.0
-2.6318617,-0.0,0.599153,128.0
-2.629489,-0.0,0.60948175,128.0
-2.6043005,-0.0,0.6144305,128.0
-2.6246207,-0.0,0.630116,128.0
-2.6069717,-0.0,0.63671607,128.0
-2.627161,-0.0,0.6525905,128.0
-2.6170156,-0.0,0.6609915,128.0
-2.6143997,-0.0,0.67126274,128.0
-2.6117435,-0.0,0.6815249,128.0
-2.6090467,-0.0,0.6917766,128.0
-2.60631,-0.0,0.7020175,128.0
-2.6035335,-0.0,0.7122452,128.0
-2.6233592,-0.0,0.7287544,128.0
-2.5978591,-0.0,0.73267233,128.0
-2.6175547,-0.0,0.7493355,128.0
-2.5920246,-0.0,0.75305307,128.0
-2.6115887,-0.0,0.7698704,128.0
-2.6085455,-0.0,0.7801195,128.0
-2.6054616,-0.0,0.7903578,128.0
-2.5798762,-0.0,0.79367393,128.0
-2.5991735,-0.0,0.8107978,128.0
-2.59597,-0.0,0.8209965,128.0
-2.6150086,-0.0,0.83832866,128.0
-2.6116962,-0.0,0.8485919,128.0
-2.5861177,-0.0,0.85152256,128.0
-2.6234486,-0.0,0.875249,128.0
-2.601518,-0.0,0.87930006,128.0
-2.5943553,-0.0,0.8882454,128.0
-2.594532,-0.0,0.899705,128.0
-2.5909786,-0.0,0.9098873,128.0
-2.6057582,-0.0,0.926589,128.0
-2.5800836,-0.0,0.92888623,128.0
-2.602065,-0.0,0.94836,128.0
-2.5763671,-0.0,0.9504724,128.0
-2.5945365,-0.0,0.9687671,128.0
-2.5761192,-0.0,0.9734348,128.0
-2.572277,-0.0,0.98354304,128.0
-2.5829442,-0.0,0.9992647,128.0
-2.579,-0.0,1.0094008,128.0
-2.5932393,-0.0,1.0267366,128.0
-2.5891871,-0.0,1.0369129,128.0
-2.5814815,-0.0,1.0456067,128.0
-2.6026177,-0.0,1.0660847,128.0
-2.558684,-0.0,1.0598422,128.0
-2.572581,-0.0,1.077453,128.0
-2.5862863,-0.0,1.0951513,128.0
-2.6250815,-0.0,1.1237557,128.0
-2.6206486,-0.0,1.134055,128.0
-2.619748,-0.0,1.1459011,128.0
-2.5937343,-0.0,1.1466784,128.0
-2.6284711,-0.0,1.1743957,128.0
-2.6025124,-0.0,1.1750785,128.0
-2.6191664,-0.0,1.1950032,128.0
-2.617995,-0.0,1.2069128,128.0
-2.6097002,-0.0,1.2155371,128.0
-2.6402853,-0.0,1.2424245,128.0
-2.6212065,-0.0,1.2460421,128.0
-2.5951996,-0.0,1.2461962,128.0
-2.5902855,-0.0,1.2563785,128.0
-2.606345,-0.0,1.2768359,128.0
-2.6188786,-0.0,1.2957524,128.0
-2.6137705,-0.0,1.3060261,128.0
-2.6086214,-0.0,1.316281,128.0
-2.6034324,-0.0,1.3265141,128.0
-2.5947347,-0.0,1.334944,128.0
-2.592933,-0.0,1.3469216,128.0
-2.6083472,-0.0,1.3679613,128.0
-2.6029553,-0.0,1.378193,128.0
-2.597523,-0.0,1.3884048,128.0
-2.6092112,-0.0,1.4078548,128.0
-2.5865383,-0.0,1.4087627,128.0
-2.5809865,-0.0,1.4189085,128.0
-2.5959427,-0.0,1.4404355,128.0
-2.5867765,-0.0,1.4486636,128.0
-2.5810673,-0.0,1.4588112,128.0
-2.5753183,-0.0,1.4689364,128.0
-2.5932782,-0.0,1.4927053,128.0
-2.5840235,-0.0,1.5009196,128.0
-2.5781093,-0.0,1.511056,128.0
-2.575512,-0.0,1.5231543,128.0
-3.4248984,-0.0,2.0436752,128.0
-2.5801764,-0.0,1.5533917,128.0
-1.7193706,-0.0,1.0443664,128.0
-3.4039104,-0.0,2.085918,128.0
-2.5650144,-0.0,1.5857316,128.0
-2.5720887,-0.0,1.604101,128.0
-2.5657706,-0.0,1.6141872,128.0
-2.5627046,-0.0,1.626341,128.0
-2.5727208,-0.0,1.6469058,128.0
-2.5465753,-0.0,1.6443037,128.0
-2.543367,-0.0,1.6564192,128.0
-2.5564008,-0.0,1.6792406,128.0
-2.572545,-0.0,1.7043451,128.0
-2.559347,-0.0,1.7101002,128.0
-2.5104837,-0.0,1.6917495,128.0
-2.4973693,-0.0,1.6972115,128.0
-2.4906864,-0.0,1.7070036,128.0
-1.6452813,-0.0,1.1371233,128.0
-3.2624083,-0.0,2.273772,128.0
-2.435304,-0.0,1.7115612,128.0
-2.3871174,-0.0,1.6917377,128.0
-2.3994944,-0.0,1.7147032,128.0
-2.376921,-0.0,1.7127135,128.0
-2.3322346,-0.0,1.6944668,128.0
-2.3445196,-0.0,1.7175006,128.0
-2.334539,-0.0,1.7243181,128.0
-2.3121111,-0.0,1.7218242,128.0
-2.2522323,-0.0,1.6910231,128.0
-2.2455738,-0.0,1.6998551,128.0
-2.2171788,-0.0,1.6920984,128.0
-2.1795282,-0.0,1.6769484,128.0
-2.1544368,-0.0,1.6711519,128.0
-2.1478574,-0.0,1.6796,128.0
-2.1412454,-0.0,1.6880211,128.0
-2.1162019,-0.0,1.6817962,128.0
-2.0913188,-0.0,1.6754633,128.0
-2.0816905,-0.0,1.6812111,128.0
-2.0780962,-0.0,1.6918356,128.0
-2.0533476,-0.0,1.6851391,128.0
-2.0467138,-0.0,1.69319,128.0
-2.0249963,-0.0,1.6886611,128.0
-2.0153646,-0.0,1.6940904,128.0
-2.0086958,-0.0,1.7019922,128.0
-1.9842037,-0.0,1.6946694,128.0
-1.9597236,-0.0,1.6871166,128.0
-1.9530828,-0.0,1.6947999,128.0
-1.9464135,-0.0,1.7024552,128.0
-1.9250853,-0.0,1.6971905,128.0
-1.91549,-0.0,1.7021469,128.0
-1.9087913,-0.0,1.7096555,128.0
-1.8846933,-0.0,1.7014581,128.0
-1.8779975,-0.0,1.7088457,128.0
-1.871272,-0.0,1.7162079,128.0
-1.8673824,-0.0,1.72619,128.0
-1.8405416,-0.0,1.7148323,128.0
-1.8195779,-0.0,1.7086986,128.0
-1.8128552,-0.0,1.7158296,128.0
-1.8061028,-0.0,1.7229358,128.0
-1.7683258,-0.0,1.7002127,128.0
-1.7757113,-0.0,1.7207834,128.0
-1.7521279,-0.0,1.7113235,128.0
-1.7453945,-0.0,1.7181904,128.0
-1.7247914,-0.0,1.7112966,128.0
-1.7153,-0.0,1.7152994,128.0
-1.6919986,-0.0,1.7053404,128.0
-1.7154542,-0.0,1.7426156,128.0
-1.694974,-0.0,1.7353874,128.0
-1.6690775,-0.0,1.7223538,128.0
-1.6514884,-0.0,1.7176503,128.0
-1.6554989,-0.0,1.7354096,128.0
-1.6379472,-0.0,1.7305678,128.0
-1.5830153,-0.0,1.6857398,128.0
-1.6056958,-0.0,1.7234038,128.0
-1.6015627,-0.0,1.7325604,128.0
-1.563046,-0.0,1.7042723,128.0
-1.5116528,-0.0,1.661286,128.0
-1.5155721,-0.0,1.6787877,128.0
-1.5115695,-0.0,1.6876317,128.0
-1.4919771,-0.0,1.6789786,128.0
-1.4853728,-0.0,1.6848242,128.0
-1.476177,-0.0,1.687709,128.0
-1.4746506,-0.0,1.699384,128.0
-1.4476104,-0.0,1.6815165,128.0
-1.4333321,-0.0,1.6782159,128.0
-1.4267303,-0.0,1.6838318,128.0
-1.4050496,-0.0,1.6715096,128.0
-1.3984759,-0.0,1.6770134,128.0
-1.4143165,-0.0,1.7096146,128.0
-1.4001057,-0.0,1.7060343,128.0
-1.3712354,-0.0,1.684299,128.0
-1.3793124,-0.0,1.7078758,128.0
-1.2920016,-0.0,1.6126813,128.0
-1.0960828,-0.0,1.3791988,128.0
-1.0689278,-0.0,1.3559282,128.0
-1.0635945,-0.0,1.3601156,128.0
-1.0582448,-0.0,1.364282,128.0
-1.0123894,-0.0,1.3158008,128.0
-1.0072142,-0.0,1.3197665,128.0
-1.006731,-0.0,1.3299309,128.0
-1.0015011,-0.0,1.3338739,128.0
-0.982219,-0.0,1.3189489,128.0
-0.9840428,-0.0,1.3322872,128.0
-1.0064605,-0.0,1.3738947,128.0
-0.97354877,-0.0,1.3399748,128.0
-0.9751188,-0.0,1.3532802,128.0
-0.9697966,-0.0,1.3570993,128.0
-0.9441077,-0.0,1.3321773,128.0
-0.98153406,-0.0,1.3965815,128.0
-0.99393874,-0.0,1.426104,128.0
-0.99941814,-0.0,1.4460374,128.0
-1.0158358,-0.0,1.4822036,128.0
-1.0078156,-0.0,1.4829555,128.0
-1.0215997,-0.0,1.5160092,128.0
-1.0113046,-0.0,1.513524,128.0
-0.992429,-0.0,1.4979767,128.0
-0.92647606,-0.0,1.4104248,128.0
-0.9060319,-0.0,1.3911757,128.0
-0.8814676,-0.0,1.3651519,128.0
-0.850814,-0.0,1.3291031,128.0
-0.85185754,-0.0,1.3423125,128.0
-0.8465794,-0.0,1.3456476,128.0
-0.8412888,-0.0,1.3489615,128.0
-0.82368064,-0.0,1.3323511,128.0
-0.8306683,-0.0,1.3555273,128.0
-0.8253384,-0.0,1.3587791,128.0
-0.81396174,-0.0,1.3519858,128.0
-0.8086466,-0.0,1.3551717,128.0
-0.8490811,-0.0,1.4357177,128.0
-0.89673316,-0.0,1.5299729,128.0
-0.88484126,-0.0,1.5233657,128.0
-0.882743,-0.0,1.533589,128.0
-0.8883574,-0.0,1.5574563,128.0
-0.8937487,-0.0,1.5813041,128.0
-0.8608041,-0.0,1.5370762,128.0
-0.86043775,-0.0,1.5506754,128.0
-0.86566323,-0.0,1.5746355,128.0
-0.8538771,-0.0,1.5677477,128.0
-0.8532695,-0.0,1.5813857,128.0
-0.83969945,-0.0,1.570966,128.0
-0.8499478,-0.0,1.6052719,128.0
-0.843637,-0.0,1.6085974,128.0
-0.84630287,-0.0,1.6292022,128.0
-0.85064983,-0.0,1.6534096,128.0
-0.8388383,-0.0,1.6463127,128.0
-0.83763707,-0.0,1.6600399,128.0
-0.82588243,-0.0,1.6528502,128.0
-0.81938577,-0.0,1.6560805,128.0
-0.8094001,-0.0,1.6521912,128.0
-0.8063538,-0.0,1.6624646,128.0
-0.7896462,-0.0,1.6444345,128.0
-0.77983326,-0.0,1.6404784,128.0
-0.763423,-0.0,1.6223545,128.0
-0.7537525,-0.0,1.6182696,128.0
-0.7604536,-0.0,1.6495513,128.0
-0.7442564,-0.0,1.6312361,128.0
-0.74426484,-0.0,1.648364,128.0
-0.7282408,-0.0,1.6299093,128.0
-0.7218342,-0.0,1.6327567,128.0
-0.7154172,-0.0,1.6355786,128.0
-0.7089884,-0.0,1.6383756,128.0
-0.7025487,-0.0,1.6411473,128.0
-0.69609964,-0.0,1.643893,128.0
-0.68357337,-0.0,1.6321329,128.0
-0.6741734,-0.0,1.6275986,128.0
-0.67073286,-0.0,1.6374515,128.0
-0.6701919,-0.0,1.6546243,128.0
-0.6462532,-0.0,1.6137049,128.0
-0.6427823,-0.0,1.6234827,128.0
-0.63640225,-0.0,1.6259942,128.0
-0.63001174,-0.0,1.6284809,128.0
-0.6208257,-0.0,1.6236571,128.0
-0.6061394,-0.0,1.6040992,128.0
-0.61078376,-0.0,1.6357899,128.0
-0.58812207,-0.0,1.5941747,128.0
-0.58719873,-0.0,1.6111289,128.0
-0.5835437,-0.0,1.6208553,128.0
-0.5771746,-0.0,1.6231343,128.0
-0.5565482,-0.0,1.5848174,128.0
-0.55032074,-0.0,1.5869906,128.0
-0.5440841,-0.0,1.5891397,128.0
-0.53783894,-0.0,1.591264,128.0
-0.5365241,-0.0,1.6081617,128.0
-0.53142405,-0.0,1.6139606,128.0
-0.5190558,-0.0,1.5974897,128.0
-0.51277804,-0.0,1.5995158,128.0
-0.5064932,-0.0,1.6015171,128.0
-0.49439368,-0.0,1.5848782,128.0
-0.48701888,-0.0,1.5830799,128.0
-0.48759145,-0.0,1.6073726,128.0
-0.46895465,-0.0,1.5680779,128.0
-0.4683349,-0.0,1.5887077,128.0
-0.46318173,-0.0,1.5942794,128.0
-0.4558437,-0.0,1.5923367,128.0
-0.45064533,-0.0,1.5978682,128.0
-0.44436744,-0.0,1.5996255,128.0
-0.43188092,-0.0,1.5786911,128.0
-0.42567846,-0.0,1.580375,128.0
-0.4194687,-0.0,1.5820345,128.0
-0.41820207,-0.0,1.6026342,128.0
-0.40703064,-0.0,1.5852801,128.0
-0.40080175,-0.0,1.5868665,128.0
-0.3945682,-0.0,1.5884278,128.0
-0.38832706,-0.0,1.5899651,128.0
-0.3820799,-0.0,1.5914779,128.0
-0.3704544,-0.0,1.5701911,128.0
-0.3695688,-0.0,1.5944297,128.0
-0.36070794,-0.0,1.5844604,128.0
-0.3570357,-0.0,1.5972829,128.0
-0.3432378,-0.0,1.5643883,128.0
-0.33955395,-0.0,1.577162,128.0
-0.33335745,-0.0,1.5784833,128.0
-0.3319026,-0.0,1.6026938,128.0
-0.32327828,-0.0,1.5925188,128.0
-0.31473908,-0.0,1.5823009,128.0
-0.3062859,-0.0,1.5720406,128.0
-0.30668685,-0.0,1.6077096,128.0
-0.3003714,-0.0,1.6089015,128.0
-0.28774527,-0.0,1.5755397,128.0
-0.28155556,-0.0,1.5766577,128.0
-0.2753615,-0.0,1.5777512,128.0
-0.27112946,-0.0,1.590354,128.0
-0.26296225,-0.0,1.5798651,128.0
-0.26050705,-0.0,1.6039829,128.0
-0.24686906,-0.0,1.558671,128.0
-0.2443317,-0.0,1.5828533,128.0
-0.23811361,-0.0,1.5838007,128.0
-0.23189259,-0.0,1.5847235,128.0
-0.22896509,-0.0,1.6087884,128.0
-0.21943918,-0.0,1.5864959,128.0
-0.21320696,-0.0,1.5873455,128.0
-0.20697145,-0.0,1.5881705,128.0
-0.20073426,-0.0,1.5889709,128.0
-0.19449249,-0.0,1.589747,128.0
-0.18686076,-0.0,1.5787802,128.0
-0.18200076,-0.0,1.5912254,128.0
-0.17575027,-0.0,1.591928,128.0
-0.16949782,-0.0,1.5926058,128.0
-0.16324276,-0.0,1.5932591,128.0
-0.15468101,-0.0,1.570501,128.0
-0.15072367,-0.0,1.5944921,128.0
-0.14446057,-0.0,1.5950717,128.0
-0.1371786,-0.0,1.5838706,128.0
-0.12999356,-0.0,1.5727369,128.0
-0.12565985,-0.0,1.5966629,128.0
-0.11763742,-0.0,1.5737094,128.0
-0.11311595,-0.0,1.5976006,128.0
-0.10527403,-0.0,1.5745847,128.0
-0.09909023,-0.0,1.574986,128.0
-0.09290415,-0.0,1.5753629,128.0
-0.08800797,-0.0,1.5991802,128.0
-0.08172695,-0.0,1.5995135,128.0
-0.074339196,-0.0,1.5763481,128.0
-0.0686532,-0.0,1.5883169,128.0
-0.061955664,-0.0,1.5768833,128.0
-0.05576317,-0.0,1.5771145,128.0
-0.050307214,-0.0,1.6008098,128.0
-0.043374944,-0.0,1.5775038,128.0
-0.037180156,-0.0,1.5776619,128.0
-0.030984042,-0.0,1.5777957,128.0
-0.02478745,-0.0,1.5779053,128.0
-0.01859123,-0.0,1.5779905,128.0
-0.012394723,-0.0,1.5780513,128.0
-0.006197271,-0.0,1.5780878,128.0
0.0,0.0,1.6016,128.0
0.0062430655,2.4516583E-5,1.5897877,128.0
0.012394144,4.8671933E-5,1.5780513,128.0
0.01859098,7.300697E-5,1.5779905,128.0
0.024787525,9.734087E-5,1.5779053,128.0
0.030983692,1.21673285E-4,1.5777957,128.0
0.037733033,1.4817802E-4,1.6011555,128.0
0.04337449,1.7033209E-4,1.5775038,128.0
0.049568936,1.9465772E-4,1.5773212,128.0
0.055349205,2.1735691E-4,1.5654218,128.0
0.06287804,2.4692275E-4,1.6003653,128.0
0.06764206,2.656311E-4,1.5649389,128.0
0.074338116,2.9192658E-4,1.5763481,128.0
0.07993076,3.1388892E-4,1.5643593,128.0
0.08671622,3.4053548E-4,1.5757155,128.0
0.09290329,3.648322E-4,1.5753629,128.0
0.099088944,3.891233E-4,1.574986,128.0
0.106840745,4.1956472E-4,1.5980325,128.0
0.11145559,4.3768727E-4,1.5741591,128.0
0.116764225,4.5853434E-4,1.562042,128.0
0.124733314,4.8982905E-4,1.5848992,128.0
0.12999241,5.1048154E-4,1.5727369,128.0
0.13819519,5.4269395E-4,1.5956267,128.0
0.14234042,5.589723E-4,1.5716674,128.0
0.14851117,5.8320496E-4,1.5710963,128.0
0.15467966,6.0742866E-4,1.570501,128.0
0.16084573,6.316429E-4,1.5698814,128.0
0.16700935,6.558475E-4,1.5692377,128.0
0.17317039,6.800419E-4,1.5685698,128.0
0.18199919,7.147127E-4,1.5912254,128.0
0.18548432,7.283989E-4,1.5671613,128.0
0.19163705,7.5256074E-4,1.5664208,128.0
0.19925322,7.8246946E-4,1.577264,128.0
0.20090967,7.889744E-4,1.5416636,128.0
0.21007715,8.2497514E-4,1.5640545,128.0
0.20231088,7.944769E-4,1.4626747,128.0
0.18712948,7.348595E-4,1.3148504,128.0
0.18267757,7.173767E-4,1.2484052,128.0
0.18409964,7.229612E-4,1.2245381,128.0
0.18712206,7.3483033E-4,1.2122427,128.0
0.19554159,7.678939E-4,1.2346104,128.0
0.19851269,7.795614E-4,1.2222843,128.0
0.20331098,7.984044E-4,1.2214954,128.0
0.2081062,8.172352E-4,1.2206875,128.0
0.21490972,8.439527E-4,1.2313867,128.0
0.21768685,8.548585E-4,1.2190154,128.0
0.21754953,8.543193E-4,1.1911969,128.0
0.2222256,8.726823E-4,1.1903335,128.0
0.21080235,8.2782307E-4,1.1050731,128.0
0.21737777,8.5364474E-4,1.1157209,128.0
0.21108611,8.289374E-4,1.0612097,128.0
0.20749319,8.148279E-4,1.0221521,128.0
0.21466896,8.430073E-4,1.0366052,128.0
0.218738,8.5898646E-4,1.0357542,128.0
0.22280368,8.749524E-4,1.0348872,128.0
0.22352274,8.777761E-4,1.0187668,128.0
0.22752166,8.934799E-4,1.0178812,128.0
0.23497984,9.2276826E-4,1.0321907,128.0
0.24079265,9.4559527E-4,1.0388585,128.0
0.24487032,9.616083E-4,1.037905,128.0
0.24894424,9.776066E-4,1.0369353,128.0
0.24838774,9.754212E-4,1.0170065,128.0
0.25237954,9.910971E-4,1.0160233,128.0
0.26400778,0.0010367613,1.0452743,128.0
0.2574418,0.0010109766,1.0026773,128.0
0.26137727,0.0010264312,1.0016586,128.0
0.27030635,0.0010614959,1.0194732,128.0
0.26616707,0.0010452409,0.9881809,128.0
0.28139204,0.0011050295,1.028604,128.0
0.28542915,0.0011208833,1.0274911,128.0
0.280993,0.0011034624,0.99633366,128.0
0.28490335,0.0011188185,0.9952225,128.0
0.29098552,0.0011427032,1.0015863,128.0
0.2960192,0.0011624704,1.0041767,128.0
0.3145156,0.001235106,1.0516766,128.0
0.3254356,0.001277989,1.0728258,128.0
0.32044268,0.0012583818,1.0416232,128.0
0.3152396,0.0012379492,1.0105723,128.0
0.32508552,0.0012766143,1.0279189,128.0
0.3184044,0.0012503774,0.99320996,128.0
0.32953322,0.0012940804,1.0142068,128.0
0.33351344,0.0013097108,1.0129048,128.0
0.34489396,0.0013544022,1.0337845,128.0
0.34520456,0.001355622,1.0213381,128.0
0.3454229,0.0013564794,1.0089054,128.0
0.35321537,0.0013870804,1.0185953,128.0
0.3494594,0.0013723307,0.99512225,128.0
0.35336453,0.0013876662,0.9937423,128.0
0.34666172,0.0013613441,0.96289736,128.0
0.34910482,0.0013709383,0.9578644,128.0
0.35421345,0.0013909999,0.960145,128.0
0.3689298,0.0014487912,0.98806924,128.0
0.37694272,0.001480258,0.9975576,128.0
0.37249994,0.0014628111,0.97421277,128.0
0.38054425,0.0014944013,0.9836544,128.0
0.38013983,0.0014928131,0.97125715,128.0
0.72906506,0.0028630462,1.8414223,128.0
0.37177008,0.001459945,0.9283237,128.0
0.0,0.0,0.0,128.0
0.33610317,0.0013198807,0.8205302,128.0
0.3183902,0.0012503216,0.76866776,128.0
0.31688645,0.0012444165,0.75661975,128.0
0.3274588,0.0012859341,0.773326,128.0
0.33360198,0.0013100585,0.7792967,128.0
0.33665967,0.0013220661,0.7779806,128.0
0.33971214,0.0013340532,0.7766525,128.0
0.3332574,0.0013087053,0.7538192,128.0
0.33621505,0.0013203201,0.7525047,128.0
0.3231186,0.0012688901,0.71563387,128.0
0.3243075,0.001273559,0.7108113,128.0
0.32709637,0.0012845108,0.70953226,128.0
0.33646673,0.0013213084,0.72238356,128.0
0.33764037,0.0013259173,0.71752787,128.0
0.33543232,0.0013172464,0.7056296,128.0
0.36014724,0.001414302,0.75001067,128.0
0.35968572,0.0014124896,0.7415725,128.0
0.35916355,0.001410439,0.7331497,128.0
0.34820393,0.0013674005,0.7037693,128.0
0.34046096,0.0013369938,0.68137467,128.0
0.3413772,0.0013405918,0.6765505,128.0
0.34403133,0.0013510147,0.67520475,128.0
0.33597508,0.0013193777,0.6530408,128.0
0.32770416,0.0012868977,0.63086224,128.0
0.3410936,0.0013394782,0.650382,128.0
0.31987435,0.00125615,0.6041422,128.0
0.34619108,0.0013594959,0.64768296,128.0
0.3375728,0.001325652,0.625637,128.0
0.32137316,0.0012620358,0.590057,128.0
0.3010937,0.0011823982,0.5476917,128.0
0.31459555,0.00123542,0.56696624,128.0
0.31681955,0.0012441537,0.5657264,128.0
0.31903875,0.0012528684,0.5644779,128.0
0.31545612,0.0012387994,0.5530577,128.0
0.33907658,0.0013315573,0.5890819,128.0
0.31391352,0.0012327417,0.5404459,128.0
0.31603342,0.0012410666,0.539209,128.0
0.32410413,0.0012727603,0.5480344,128.0
0.32025853,0.0012576587,0.53671026,128.0
0.31632903,0.0012422275,0.5254249,128.0
0.31231594,0.001226468,0.51417875,128.0
0.3204459,0.0012583944,0.52292424,128.0
0.36356494,0.0014277233,0.5880922,128.0
0.361744,0.0014205724,0.5800416,128.0
0.3681725,0.0014458173,0.58521867,128.0
